# .PCD v0.7 - Point Cloud Data file format
VERSION 0.7
FIELDS x y z intensity
SIZE 4 4 4 4
TYPE F F F F
COUNT 1 1 1 1
WIDTH 1332
HEIGHT 1
VIEWPOINT 0 0 0 1 0 0 0
POINTS 1332
DATA ascii
0.75411803 -6.23809 0.55028999 157
0.74461001 -6.2417402 0.55050802 157
0.73566401 -6.25032 0.551162 156
0.72658098 -6.2564001 0.55159801 156
0.71813703 -6.2648902 0.55225098 156
0.70922202 -6.2709198 0.55268699 156
0.69991398 -6.2769799 0.553123 156
0.0155694 -0.040896598 0.0042599998 5
0.0155052 -0.040920999 0.0042599998 20
0.34691399 -3.1989701 0.282069 131
0.34265599 -3.2069399 0.282722 123
0.33761901 -3.2074699 0.282722 139
0.33208299 -3.2030399 0.282287 175
0.326563 -3.1986101 0.28185099 192
0.321298 -3.19664 0.28163299 196
0.315566 -3.1896999 0.28097901 199
0.310323 -3.18771 0.280761 198
0.30531499 -3.18819 0.280761 199
0.300082 -3.1861899 0.280543 200
0.29485601 -3.18418 0.28032601 208
0.28985301 -3.1846399 0.28032601 208
0.28485101 -3.1850901 0.28032601 200
0.279847 -3.1855299 0.28032601 200
0.27484301 -3.1859701 0.28032601 199
0.27004001 -3.18888 0.280543 198
0.265228 -3.1917801 0.280761 197
0.26040801 -3.19467 0.28097901 195
0.25530201 -3.1950901 0.28097901 196
0.25018999 -3.1979899 0.28119701 196
0.244974 -3.19839 0.28119701 32
0.23995 -3.19877 0.28119701 169
0.503986 -7.0450201 0.61848998 157
0.493938 -7.06071 0.61979699 151
0.484009 -7.0788698 0.62132198 146
0.47418499 -7.0995102 0.62306499 143
0.46461499 -7.1251001 0.62524402 140
0.45481101 -7.14819 0.62720501 137
0.44448501 -7.1638098 0.62851298 136
0.433963 -7.17693 0.62960202 136
0.42311701 -7.18506 0.630256 136
0.41224599 -7.1931801 0.63090903 136
0.401351 -7.2012801 0.63156301 136
0.390562 -7.2118502 0.63243401 136
0.379742 -7.2224002 0.63330603 136
0.36888799 -7.2329402 0.63417798 136
0.35776499 -7.2384801 0.63461298 136
0.34662399 -7.24401 0.63504899 136
0.33535701 -7.2470398 0.63526702 136
0.323973 -7.24755 0.63526702 136
0.31278601 -7.2480502 0.63526702 136
0.30213299 -7.2509899 0.63548499 136
0.291177 -7.25144 0.63548499 136
0.27978599 -7.2518902 0.63548499 136
0.26839501 -7.2523198 0.63548499 136
0.257002 -7.2527299 0.63548499 136
0.245529 -7.2506399 0.63526702 136
0.234139 -7.2510099 0.63526702 136
0.222479 -7.2488899 0.63504899 136
0.21045899 -7.2492499 0.63504899 136
0.19870301 -7.25207 0.63526702 136
0.187613 -7.2648201 0.636356 134
0.17637099 -7.2725801 0.63700998 134
0.165737 -7.3101902 0.640279 132
0.15532701 -7.3652301 0.64507198 129
0.145327 -7.45261 0.65269798 125
0.134931 -7.5325198 0.65967101 122
0.124543 -7.6298399 0.66816801 118
0.113386 -7.6922798 0.67361599 105
0.101974 -7.7497301 0.67862701 102
0.090054102 -7.7747798 0.68080598 105
0.078161702 -7.8122702 0.68407398 106
0.066082798 -7.8397799 0.68647099 105
0.053903099 -7.8647799 0.68865001 102
0.041617099 -7.8822799 0.690175 103
0.029280899 -7.9022598 0.69191802 103
0.016879501 -7.9172401 0.69322598 104
0.0044279802 -7.93469 0.69475102 104
-0.0080772899 -7.9521198 0.69627601 103
-0.020628501 -7.9670401 0.69758302 102
-0.0332116 -7.9794502 0.69867301 105
-0.045834899 -7.9918399 0.69976199 106
-0.0584528 -7.9992299 0.70041603 105
-0.071120702 -8.0090904 0.70128697 105
-0.0838186 -8.0189304 0.70215899 103
-0.0965821 -8.0312405 0.70324802 105
-0.109421 -8.0460196 0.70455599 103
-0.122307 -8.0607796 0.705863 99
-0.13532899 -8.0804996 0.70760602 101
-0.14836501 -8.0977097 0.709131 105
-0.16145501 -8.1148901 0.710657 102
-0.17454401 -8.12957 0.71196401 99
-0.187677 -8.1442204 0.71327102 100
-0.200729 -8.1538801 0.71414298 102
-0.213452 -8.1585398 0.71457899 100
-0.22562701 -8.1606998 0.71479702 102
-0.237955 -8.1603498 0.71479702 102
-0.25085399 -8.1624498 0.71501398 105
-0.263758 -8.1645403 0.71523201 105
-0.276759 -8.1690903 0.71566802 104
-0.289956 -8.1786003 0.71653998 103
-0.30309001 -8.1856003 0.71719301 104
-0.31634399 -8.1950703 0.71806502 102
-0.32952699 -8.2020302 0.71871901 105
-0.34273201 -8.2089701 0.71937197 101
-0.35596001 -8.2158804 0.72002602 99
-0.36932501 -8.2252598 0.72089702 100
-0.38260201 -8.2321396 0.721551 100
-0.39590099 -8.2389898 0.72220498 100
-0.40922299 -8.24582 0.72285801 100
-0.42269701 -8.2551098 0.72373003 96
-0.436068 -8.2618999 0.72438401 100
-0.44973701 -8.2736397 0.72547299 101
-0.46330199 -8.2828703 0.726345 98
-0.477189 -8.2970505 0.72765201 100
-0.491274 -8.3136902 0.729177 100
-0.50541103 -8.3303099 0.730703 98
-0.51976001 -8.34939 0.73244601 98
-0.53400803 -8.3659601 0.733971 96
-0.54814398 -8.3800201 0.73527801 99
-0.56221402 -8.3890696 0.73615003 98
-0.576819 -8.3980598 0.73702103 96
-0.59104699 -8.4045601 0.73767501 96
-0.60461301 -8.4085903 0.73811102 98
-0.618191 -8.4125996 0.73854601 99
-0.631405 -8.4116201 0.73854601 97
-0.64461702 -8.4106102 0.73854601 97
-0.65743297 -8.4046297 0.73811102 96
-0.67003 -8.3961401 0.73745698 96
-0.68239701 -8.38515 0.73658502 97
-0.69452101 -8.3716497 0.73549598 93
-0.70660502 -8.3581495 0.73440701 96
-0.71886498 -8.3471003 0.73353499 96
-0.73109299 -8.3360395 0.73266399 95
-0.74328601 -8.3249598 0.73179197 96
-0.75544798 -8.3138599 0.73092002 96
-0.76757598 -8.3027496 0.73004901 98
-0.779199 -8.2866602 0.728742 96
-0.79008102 -8.2681103 0.72721601 97
-0.799918 -8.24965 0.72569102 98
-0.80990702 -8.2286596 0.723948 99
-0.82057202 -8.2050695 0.72198701 99
-0.83189702 -8.18641 0.72046202 102
-0.84391397 -8.1701603 0.719154 104
-0.85618401 -8.1588697 0.718283 102
-0.86793101 -8.1476097 0.71741098 105
-0.88018501 -8.1412802 0.71697599 107
-0.89297301 -8.1398897 0.71697599 109
-0.90603602 -8.1409502 0.71719301 111
-0.920237 -8.1518898 0.718283 113
-0.93533301 -8.1702299 0.72002602 110
-0.95136201 -8.1959496 0.72242302 109
-0.96806097 -8.2265997 0.72525501 106
-0.98486 -8.2572098 0.72808802 103
-1.00085 -8.2803802 0.73026699 101
-1.016 -8.2960901 0.73179197 103
-1.03058 -8.3068399 0.73288101 102
-1.04425 -8.3101597 0.73331702 105
-1.05794 -8.3134499 0.73375303 107
-1.07164 -8.3167105 0.73418897 103
-1.086 -8.3248997 0.73505998 107
-1.10106 -8.3379898 0.736368 104
-1.11682 -8.3559999 0.73811102 105
-1.13331 -8.3789101 0.74028999 105
-1.15022 -8.4042501 0.74268597 102
-1.16721 -8.4295702 0.74508297 105
-1.18464 -8.4573202 0.74769801 103
-1.2025 -8.4875002 0.75053 106
-1.22047 -8.5176401 0.75336301 104
-1.23997 -8.5576 0.75706702 103
-1.2599699 -8.5999899 0.76098901 107
-1.28083 -8.6472702 0.765347 101
-1.3014801 -8.69203 0.76948702 99
-1.32152 -8.7318296 0.77319098 99
-1.33903 -8.7543602 0.77537 101
-1.35585 -8.7719297 0.77711302 107
-1.37156 -8.7820902 0.778202 108
-1.38771 -8.7946796 0.77951002 108
-1.40547 -8.8170795 0.78168899 110
-1.4245 -8.8468199 0.78452098 106
-1.44525 -8.8863497 0.788225 104
-1.4677401 -8.9356699 0.79280102 103
-1.49015 -8.9849796 0.79737699 103
-1.5125901 -9.0367899 0.80216998 101
-1.53502 -9.08605 0.80674601 99
-1.5573 -9.1302605 0.81088603 94
-1.5788701 -9.1695204 0.81458998 91
-1.59972 -9.2038298 0.81785798 91
-1.61894 -9.2282801 0.82025498 91
-1.63736 -9.2477903 0.82221597 92
-1.6549799 -9.2623701 0.82374102 92
-1.67264 -9.2769098 0.825266 90
-1.6899 -9.28897 0.82657403 91
-1.7072001 -9.3009996 0.82788098 90
-1.72409 -9.3105497 0.82897002 89
-1.74148 -9.3225098 0.83027798 89
-1.75844 -9.3319998 0.83136702 88
-1.7759 -9.3438997 0.83267498 92
-1.79293 -9.3533297 0.83376402 89
-1.81048 -9.3651695 0.83507103 90
-1.82806 -9.3769798 0.83637899 89
-1.8461699 -9.3912001 0.83790398 87
-1.86384 -9.4029398 0.83921099 88
-1.88254 -9.4195299 0.84095401 87
-1.9008 -9.43365 0.84248 87
-1.9186 -9.4452896 0.84378701 87
-1.93695 -9.4593401 0.845312 88
-1.95485 -9.4709196 0.84662002 88
-1.97227 -9.4800301 0.847709 85
-1.99076 -9.4939699 0.84923398 86
-2.00929 -9.5078897 0.85075903 84
-2.02788 -9.5217695 0.85228503 88
-2.04651 -9.5356102 0.85381001 86
-2.0646601 -9.5469904 0.85511702 86
-2.08232 -9.5558996 0.85620701 85
-2.1005499 -9.5671997 0.85751402 86
-2.1171999 -9.5711899 0.85816801 86
-2.1338601 -9.57514 0.85882097 88
-2.1505401 -9.5790596 0.85947502 87
-2.1666901 -9.5805302 0.85991102 86
-2.1828499 -9.5819702 0.86034697 86
-2.20014 -9.5882397 0.86121798 86
-2.2168901 -9.5920496 0.86187202 87
-2.2353599 -9.6030998 0.86317903 87
-2.2532899 -9.6117001 0.86426902 85
-2.27069 -9.6178398 0.86514002 85
-2.28811 -9.62395 0.86601198 85
-2.30439 -9.6251898 0.86644697 86
-2.3198299 -9.6240396 0.86666501 85
-2.3352799 -9.6254301 0.86710101 87
-2.3510101 -9.62673 0.86753702 88
-2.36852 -9.6326904 0.86840802 88
-2.3866501 -9.6410503 0.86949801 89
-2.40482 -9.6493597 0.87058699 86
-2.4230101 -9.65765 0.87167698 88
-2.44063 -9.6634903 0.87254798 89
-2.45766 -9.6668797 0.87320203 86
-2.4747 -9.6702499 0.87385601 85
-2.49176 -9.6735802 0.87450898 87
-2.50946 -9.6792898 0.87538099 87
-2.5278201 -9.6873798 0.87647003 85
-2.5462101 -9.6954403 0.87756002 85
-2.56463 -9.7034702 0.878649 84
-2.5830801 -9.7114601 0.87973899 83
-2.60027 -9.7145996 0.88039201 86
-2.6168301 -9.7153101 0.88082802 86
-2.63274 -9.7136002 0.881046 86
-2.6486599 -9.7118502 0.88126397 86
-2.6639099 -9.7076797 0.88126397 86
-2.6791501 -9.7034798 0.88126397 84
-2.69506 -9.7016602 0.88148201 85
-2.7109699 -9.69981 0.88169998 87
-2.7268801 -9.6979399 0.88191801 87
-2.74347 -9.6984301 0.88235301 89
-2.7593901 -9.6965103 0.88257098 92
-2.77599 -9.69695 0.88300699 87
-2.7919099 -9.6949701 0.88322502 85
-2.8085301 -9.6953497 0.88366097 86
-2.82305 -9.6885405 0.883443 86
-2.8382699 -9.6840897 0.883443 85
-2.8520601 -9.6748505 0.88300699 86
-2.86655 -9.6679697 0.88278902 85
-2.8803 -9.65868 0.88235301 86
-2.8947501 -9.6517601 0.88213497 88
-2.9091899 -9.6448202 0.88191801 90
-2.92361 -9.6378498 0.88169998 88
-2.93801 -9.6308699 0.88148201 85
-2.95241 -9.6238604 0.88126397 87
-2.9667799 -9.6168299 0.881046 87
-2.9811499 -9.6097803 0.88082802 88
-2.9954901 -9.6027098 0.88060999 87
-3.01057 -9.59799 0.88060999 89
-3.0246301 -9.5909595 0.88039201 88
-3.0388601 -9.5864601 0.88039201 87
-3.05334 -9.5818596 0.88039201 89
-3.06762 -9.5746803 0.88017398 88
-3.08112 -9.5651102 0.87973899 86
-3.0961499 -9.5602598 0.87973899 88
-3.1103899 -9.5530195 0.87952101 88
-3.1246099 -9.5457602 0.87930298 90
-3.1396 -9.5408401 0.87930298 88
-3.1545801 -9.5358896 0.87930298 88
-3.1703501 -9.5332899 0.87952101 88
-3.18611 -9.5306597 0.87973899 88
-3.20134 -9.5255499 0.87973899 87
-3.2163301 -9.5178699 0.87952101 86
-3.2318399 -9.51262 0.87952101 88
-3.24436 -9.5004597 0.87886697 89
-3.2584701 -9.493 0.878649 88
-3.27175 -9.48316 0.87821299 91
-3.2850001 -9.4733 0.87777799 92
-3.2982299 -9.4634304 0.87734199 96
-3.3122699 -9.4558897 0.87712401 95
-3.32546 -9.4459801 0.876688 97
-3.3394599 -9.4384003 0.87647003 98
-3.35344 -9.4307899 0.876252 101
-3.3682499 -9.4255104 0.876252 106
-3.38221 -9.4178696 0.87603498 112
-3.3970001 -9.4125404 0.87603498 109
-3.4109299 -9.4048595 0.875817 112
-3.4256999 -9.3994904 0.875817 114
-3.43874 -9.3894196 0.87538099 114
-3.4517601 -9.3793297 0.87494498 112
-3.4647501 -9.3692303 0.87450898 113
-3.47773 -9.3591099 0.87407398 108
-3.4898 -9.3466396 0.87342 114
-3.4974599 -9.3225002 0.87167698 115
-3.50946 -9.3100004 0.871023 114
-3.5143399 -9.2788696 0.868626 123
-3.4942701 -9.1826 0.860129 139
-3.47122 -9.0794401 0.850977 157
-3.4774201 -9.0530596 0.84901601 170
-3.48804 -9.0382996 0.84814501 180
-3.49682 -9.0188799 0.84683698 187
-3.50916 -9.0087404 0.84640199 193
-3.52513 -9.0078497 0.84683698 193
-3.5460999 -9.0210304 0.84858102 185
-3.5687799 -9.0415401 0.850977 180
-3.5966101 -9.0733805 0.85446399 170
-3.6256499 -9.1047201 0.85794997 158
-3.6538601 -9.1336899 0.86121798 149
-3.67658 -9.1487198 0.86317903 141
-3.69749 -9.1590996 0.86470401 134
-3.71281 -9.1555796 0.86492199 131
-3.7262499 -9.14744 0.86470401 129
-3.7406099 -9.1415701 0.86470401 129
-3.7530701 -9.1310797 0.86426902 129
-3.7664499 -9.1228704 0.86405098 129
-3.7788701 -9.1123505 0.86361498 129
-3.7922201 -9.1041002 0.863397 129
-3.80458 -9.0935402 0.86296099 129
-3.8178999 -9.0852604 0.86274302 128
-3.83022 -9.0746603 0.86230803 128
-3.8434899 -9.0663404 0.86208999 128
-3.8557701 -9.0557098 0.86165398 128
-3.86901 -9.0473604 0.86143601 128
-3.8812499 -9.0366898 0.861 128
-3.8944499 -9.0283003 0.86078203 128
-3.90763 -9.0198898 0.86056399 128
-3.9208 -9.0114603 0.86034697 128
-3.93295 -9.00072 0.85991102 128
-3.94508 -8.9899797 0.85947502 128
-3.95718 -8.9792099 0.85903901 128
-3.96926 -8.9684296 0.858603 128
-3.9813099 -8.9576397 0.85816801 127
-3.99436 -8.9490995 0.85794997 127
-4.00739 -8.9405403 0.857732 127
-4.0204101 -8.9319696 0.85751402 127
-4.0334001 -8.9233704 0.85729599 127
-4.0463901 -8.9147596 0.85707802 127
-4.05831 -8.9038601 0.85664201 127
-4.07022 -8.8929501 0.85620701 127
-4.0831399 -8.8842802 0.85598898 127
-4.0949998 -8.8733397 0.85555297 127
-4.1068301 -8.86238 0.85511702 127
-4.1196899 -8.8536596 0.85489899 127
-4.1325402 -8.8449202 0.85468102 127
-4.1443 -8.83391 0.85424602 127
-4.1571102 -8.82514 0.85402799 127
-4.1688299 -8.8141003 0.85359198 127
-4.1813598 -8.8053999 0.853374 127
-4.1922698 -8.7946997 0.852938 127
-4.2044802 -8.7861099 0.85272002 127
-4.2171898 -8.7772503 0.852503 127
-4.2298899 -8.7683697 0.85228503 127
-4.24366 -8.7617197 0.85228503 127
-4.25632 -8.7528 0.85206699 128
-4.26897 -8.7438698 0.85184902 130
-4.2804999 -8.7326803 0.85141301 130
-4.2931199 -8.7237101 0.85119498 130
-4.3034902 -8.7102699 0.85054201 150
-4.31495 -8.6990404 0.850106 150
-4.3263898 -8.6877899 0.84966999 148
-4.3378 -8.6765299 0.84923398 145
-4.3502998 -8.6674805 0.84901601 142
-4.3627901 -8.6584196 0.84879798 142
-4.37638 -8.6515503 0.84879798 142
-4.3899698 -8.6446695 0.84879798 142
-4.40241 -8.63554 0.84858102 140
-4.4148302 -8.6264 0.84836298 139
-4.4272299 -8.61724 0.84814501 139
-4.43962 -8.6080599 0.84792697 139
-4.4519901 -8.5988703 0.847709 138
-4.4631901 -8.58745 0.84727299 137
-4.4755101 -8.5782204 0.84705502 137
-4.4878302 -8.5689802 0.84683698 137
-4.5001202 -8.5597095 0.84662002 137
-4.5123901 -8.5504303 0.84640199 137
-4.5246501 -8.5411301 0.84618402 137
-4.53689 -8.5318203 0.84596598 137
-4.5479398 -8.5202904 0.84552997 137
-4.5601401 -8.5109396 0.845312 137
-4.5711298 -8.4993801 0.84487599 137
-4.5832901 -8.4899998 0.84465897 137
-4.5966201 -8.48279 0.84465897 137
-4.6087499 -8.4733801 0.844441 137
-4.6220498 -8.4661303 0.844441 136
-4.63415 -8.4566698 0.84422302 136
-4.6474299 -8.4493799 0.84422302 136
-4.6594901 -8.4398899 0.84400499 136
-4.67274 -8.43256 0.84400499 136
-4.6847701 -8.4230404 0.84378701 136
-4.6979899 -8.4156704 0.84378701 134
-4.7087598 -8.4039402 0.84335101 133
-4.7207398 -8.3943596 0.84313297 130
-4.7326899 -8.3847704 0.842915 129
-4.7433901 -8.3729897 0.84248 128
-4.7553101 -8.3633699 0.84226203 126
-4.7672 -8.3537302 0.842044 126
-4.7790799 -8.3440704 0.84182602 126
-4.7921801 -8.3365498 0.84182602 126
-4.8052702 -8.32901 0.84182602 126
-4.81709 -8.3192997 0.84160799 126
-4.8301601 -8.3117199 0.84160799 126
-4.8419499 -8.30198 0.84139001 126
-4.8537202 -8.2922096 0.84117198 126
-4.8654799 -8.2824297 0.84095401 126
-4.8772202 -8.2726402 0.84073699 126
-4.8902001 -8.2649603 0.84073699 126
-4.9019098 -8.2551298 0.84051901 124
-4.9161401 -8.2495604 0.84073699 124
-4.9278202 -8.2396898 0.84051901 124
-4.9407501 -8.2319403 0.84051901 124
-4.9523902 -8.2220402 0.84030098 126
-4.9640098 -8.2121201 0.840083 128
-4.9756098 -8.2021799 0.83986503 130
-4.9858899 -8.1901102 0.83942902 130
-4.9974499 -8.1801395 0.83921099 131
-5.0089898 -8.1701603 0.83899301 131
-5.0218201 -8.1622801 0.83899301 131
-5.0346298 -8.1543798 0.83899301 131
-5.0461202 -8.1443501 0.83877599 131
-5.0589099 -8.1364098 0.83877599 131
-5.0716801 -8.1284599 0.83877599 131
-5.0844402 -8.1204796 0.83877599 131
-5.09586 -8.1103802 0.83855802 131
-5.1086001 -8.1023598 0.83855802 131
-5.1199799 -8.0922203 0.83833998 131
-5.13269 -8.0841703 0.83833998 131
-5.1440401 -8.0740004 0.83812201 131
-5.1553702 -8.0638103 0.83790398 131
-5.1680298 -8.0557003 0.83790398 130
-5.1793299 -8.0454798 0.837686 130
-5.1919599 -8.0373402 0.837686 130
-5.2032199 -8.0270901 0.83746803 130
-5.2158298 -8.0188999 0.83746803 130
-5.2284098 -8.0107002 0.83746803 130
-5.2396202 -8.0003901 0.83724999 130
-5.2521801 -7.9921498 0.83724999 130
-5.26336 -7.9818201 0.83703202 130
-5.2756701 -7.97368 0.83703202 130
-5.2874999 -7.9658499 0.83703202 130
-5.2983599 -7.9556298 0.836815 130
-5.3115401 -7.9468398 0.836815 128
-5.3258801 -7.9402299 0.83703202 128
-5.3383498 -7.93186 0.83703202 128
-5.3508 -7.92346 0.83703202 128
-5.3632398 -7.91505 0.83703202 128
-5.37427 -7.9045501 0.836815 128
-5.3866801 -7.8961 0.836815 128
-5.3976598 -7.8855801 0.83659703 128
-5.4100399 -7.87709 0.83659703 128
-5.421 -7.8665299 0.83637899 128
-5.4319301 -7.8559599 0.83616102 129
-5.4442601 -7.8474202 0.83616102 129
-5.4565802 -7.83886 0.83616102 129
-5.4688902 -7.8302798 0.83616102 129
-5.4811802 -7.8216801 0.83616102 129
-5.4934602 -7.8130598 0.83616102 129
-5.5057302 -7.80442 0.83616102 129
-5.5179801 -7.7957602 0.83616102 126
-5.53022 -7.7870798 0.83616102 125
-5.5424399 -7.7783899 0.83616102 123
-5.5546498 -7.76967 0.83616102 121
-5.5668502 -7.7609401 0.83616102 119
-5.57758 -7.7501602 0.83594298 119
-5.5868201 -7.73736 0.83550698 142
-5.5960398 -7.7245402 0.83507103 142
-5.6052399 -7.71172 0.83463597 136
-5.61587 -7.7008901 0.834418 130
-5.6264901 -7.6900501 0.83420002 124
-5.6385598 -7.6812 0.83420002 119
-5.6521001 -7.6743398 0.834418 103
-5.6641502 -7.6654501 0.834418 104
-5.67767 -7.6585498 0.83463597 104
-5.6911802 -7.6516099 0.83485401 113
-5.7031898 -7.6426702 0.83485401 115
-5.71668 -7.6356902 0.83507103 111
-5.7286701 -7.6266999 0.83507103 109
-5.7406402 -7.6176901 0.83507103 107
-5.7526002 -7.6086702 0.83507103 111
-5.7645502 -7.5996199 0.83507103 112
-5.7764802 -7.59056 0.83507103 108
-5.7899098 -7.5834498 0.835289 111
-5.80161 -7.5745001 0.835289 111
-5.81284 -7.5658898 0.835289 111
-5.8242602 -7.5570998 0.835289 115
-5.8361201 -7.5479398 0.835289 123
-5.84797 -7.5387602 0.835289 118
-5.8598099 -7.5295701 0.835289 120
-5.87009 -7.5183902 0.83507103 123
-5.8818998 -7.50916 0.83507103 144
-5.8906002 -7.4959998 0.83463597 146
-5.9008298 -7.4847898 0.834418 143
-5.9094801 -7.4716001 0.83398199 143
-5.9196601 -7.4603601 0.83376402 160
-5.9282598 -7.4471598 0.83332801 162
-5.9383998 -7.4359002 0.83310997 162
-5.94695 -7.4226799 0.83267498 162
-5.9586 -7.4133301 0.83267498 162
-5.9686799 -7.40202 0.83245701 174
-5.9802999 -7.3926301 0.83245701 167
-5.9903302 -7.3813 0.83223897 158
-6.00349 -7.3738098 0.83245701 152
-6.0152702 -7.3642101 0.83245701 148
-6.0306301 -7.3580699 0.83289301 143
-6.0457902 -7.3520699 0.83332801 140
-6.0589199 -7.3444901 0.83354598 136
-6.0736299 -7.3387899 0.83398199 133
-6.0883398 -7.3330698 0.834418 130
-6.1030402 -7.3273201 0.83485401 126
-6.1161399 -7.3196402 0.83507103 125
-6.12923 -7.3119302 0.835289 125
-6.1407099 -7.30229 0.835289 125
-6.1521702 -7.2926402 0.835289 125
-6.16362 -7.2829599 0.835289 125
-6.1750498 -7.2732701 0.835289 125
-6.18647 -7.2635598 0.835289 124
-6.1978698 -7.25384 0.835289 124
-6.20926 -7.2440901 0.835289 124
-6.2206302 -7.2343302 0.835289 121
-6.2336202 -7.2264299 0.83550698 118
-6.2449598 -7.21663 0.83550698 108
-6.2579198 -7.2086902 0.83572501 106
-6.2708702 -7.2007298 0.83594298 105
-6.2821798 -7.1908698 0.83594298 107
-6.2967501 -7.1847401 0.83637899 109
-6.3080301 -7.17484 0.83637899 113
-6.3207502 -7.1669598 0.83659703 123
-6.3313699 -7.1575699 0.83659703 139
-6.3421798 -7.1479998 0.83659703 157
-6.3484302 -7.1324501 0.83594298 156
-6.3596201 -7.1224699 0.83594298 153
-6.3691401 -7.11062 0.83572501 151
-6.3803 -7.1006098 0.83572501 149
-6.3914499 -7.09058 0.83572501 144
-6.4042501 -7.0823698 0.83594298 141
-6.4170399 -7.0741501 0.83616102 136
-6.4298201 -7.0658998 0.83637899 133
-6.4425998 -7.0576301 0.83659703 129
-6.4570398 -7.0511699 0.83703202 128
-6.4698 -7.04285 0.83724999 126
-6.4825401 -7.0345101 0.83746803 126
-6.4952798 -7.0261402 0.837686 126
-6.5079999 -7.0177498 0.83790398 128
-6.5173202 -7.0057001 0.837686 148
-6.5266099 -6.9936399 0.83746803 163
-6.5324798 -6.9779301 0.836815 175
-6.54002 -6.9640298 0.83637899 174
-6.5475302 -6.95013 0.83594298 174
-6.5567198 -6.9380298 0.83572501 174
-6.5676098 -6.9277201 0.83572501 171
-6.5802102 -6.9191999 0.83594298 169
-6.5910702 -6.9088502 0.83594298 166
-6.6036301 -6.90029 0.83616102 165
-6.61619 -6.8916998 0.83637899 167
-6.6270099 -6.8813 0.83637899 170
-6.6378102 -6.8708801 0.83637899 180
-6.6503301 -6.8622298 0.83659703 175
-6.6610999 -6.8517799 0.83659703 176
-6.6736002 -6.8430901 0.836815 172
-6.68608 -6.8343701 0.83703202 165
-6.7003002 -6.8274102 0.83746803 163
-6.71451 -6.8204298 0.83790398 175
-6.7252202 -6.8098698 0.83790398 170
-6.7376599 -6.8010702 0.83812201 167
-6.7485199 -6.7902899 0.83812201 177
-6.7597699 -6.7790899 0.83812201 180
-6.7708201 -6.7680602 0.83812201 182
-6.7814398 -6.75741 0.83812201 189
-6.7920499 -6.7467499 0.83812201 187
-6.80264 -6.7360802 0.83812201 187
-6.81499 -6.7271299 0.83833998 188
-6.8291001 -6.7199101 0.83877599 188
-6.84302 -6.7128401 0.83921099 175
-6.8565402 -6.7061601 0.839647 172
-6.8684502 -6.6975298 0.83986503 181
-6.8807502 -6.6884699 0.840083 188
-6.8894501 -6.67592 0.83986503 188
-6.89993 -6.6650901 0.83986503 188
-6.9103899 -6.6542401 0.83986503 189
-6.9226398 -6.6451001 0.840083 189
-6.9330602 -6.6342201 0.840083 189
-6.9470901 -6.62676 0.84051901 189
-6.95749 -6.61584 0.84051901 189
-6.9714899 -6.6083202 0.84095401 188
-6.9836702 -6.5990701 0.84117198 188
-6.9958401 -6.5897999 0.84139001 188
-7.0079999 -6.5805001 0.84160799 188
-7.0201502 -6.5711899 0.84182602 187
-7.03229 -6.5618501 0.842044 185
-7.0444102 -6.5524902 0.84226203 182
-7.05652 -6.5431099 0.84248 185
-7.0686302 -6.5337 0.84269798 187
-7.0788798 -6.5225902 0.84269798 187
-7.09095 -6.5131502 0.842915 185
-7.1030102 -6.5036802 0.84313297 185
-7.1169 -6.4958701 0.84356898 185
-7.1289401 -6.4863501 0.84378701 187
-7.1409702 -6.47682 0.84400499 188
-7.1529799 -6.4672599 0.84422302 188
-7.1649899 -6.4576802 0.844441 190
-7.17697 -6.4480801 0.84465897 188
-7.1889501 -6.4384599 0.84487599 188
-7.2009201 -6.4288201 0.84509403 188
-7.2128701 -6.4191499 0.845312 188
-7.2248101 -6.4094601 0.84552997 188
-7.2367301 -6.3997598 0.84574801 186
-7.2505202 -6.3916702 0.84618402 186
-7.2624202 -6.3819098 0.84640199 186
-7.2761898 -6.3737798 0.84683698 186
-7.2880702 -6.3639798 0.84705502 189
-7.3018198 -6.3557901 0.84749103 189
-7.31179 -6.3443098 0.84749103 189
-7.32552 -6.3360701 0.84792697 189
-7.3354602 -6.3245502 0.84792697 189
-0.024923 -0.035969201 0.0042599998 6
-3.46296 -2.97452 0.39994699 171
-3.46383 -2.9658501 0.39951101 152
-3.46279 -2.95557 0.398857 152
-3.4541299 -2.9388599 0.39733201 154
-3.4397099 -2.9173701 0.39515299 157
-3.4195099 -2.89112 0.39232099 159
-3.39733 -2.8633399 0.38927001 161
-3.3750701 -2.83564 0.38622001 163
-3.3508201 -2.8064201 0.38295099 163
-3.3303199 -2.7804699 0.380119 166
-3.3097501 -2.75459 0.37728599 177
-3.2929399 -2.73195 0.37488899 177
-3.2818401 -2.7141099 0.373146 174
-3.2783899 -2.7026401 0.37227499 183
-3.27685 -2.69276 0.37162101 189
-3.28108 -2.6876099 0.37162101 194
-3.28723 -2.68402 0.37183899 198
-3.29144 -2.6788499 0.37183899 199
-3.29758 -2.67524 0.37205699 199
-3.30372 -2.6716199 0.37227499 199
-3.30791 -2.66643 0.37227499 199
-3.3120999 -2.6612301 0.37227499 199
-3.3182199 -2.6575699 0.372493 199
-3.3243401 -2.6539099 0.372711 199
-3.32851 -2.64868 0.372711 199
-3.33462 -2.64499 0.37292799 199
-3.3387699 -2.63975 0.37292799 199
-3.3448701 -2.63604 0.373146 199
-3.34901 -2.63078 0.373146 199
-3.3550999 -2.6270499 0.373364 199
-3.3611901 -2.6233001 0.37358201 199
-3.36728 -2.61955 0.37380001 199
-3.3713901 -2.6142499 0.37380001 199
-3.37746 -2.6104701 0.37401801 199
-3.3815601 -2.60516 0.37401801 199
-3.38763 -2.6013601 0.37423599 199
-3.39171 -2.59604 0.37423599 199
-3.3977699 -2.5922101 0.37445399 199
-3.40184 -2.58687 0.37445399 199
-3.4078801 -2.58302 0.374672 199
-3.4139299 -2.57916 0.37488899 199
-3.41997 -2.57529 0.37510699 199
-3.4260099 -2.5713999 0.37532499 199
-3.4300399 -2.56602 0.37532499 199
-3.43607 -2.5621099 0.375543 199
-3.4400201 -2.5567999 0.375543 199
-3.4458101 -2.55318 0.375761 199
-3.4496701 -2.5479701 0.375761 198
-3.4556701 -2.5440199 0.37597901 199
-3.4596601 -2.53859 0.37597901 199
-3.4656601 -2.53461 0.37619701 199
-3.46964 -2.52917 0.37619701 199
-3.4776499 -2.5266299 0.37663299 198
-3.4816101 -2.5211599 0.37663299 198
-3.48961 -2.5186 0.37706801 198
-3.49559 -2.51456 0.37728599 198
-3.50156 -2.51051 0.37750399 198
-3.50753 -2.5064499 0.377722 198
-3.5135 -2.5023799 0.37794 198
-3.51946 -2.4982901 0.378158 198
-3.5254099 -2.4942 0.37837601 198
-3.5313699 -2.4900899 0.37859401 198
-3.53527 -2.48453 0.37859401 198
-3.5432601 -2.4818299 0.37902901 197
-3.5492001 -2.47768 0.37924701 197
-3.5571799 -2.47493 0.37968299 197
-3.56107 -2.4693401 0.37968299 197
-3.5669899 -2.4651599 0.37990099 198
-3.5708599 -2.4595499 0.37990099 198
-3.5767801 -2.4553399 0.380119 198
-3.5806301 -2.4497199 0.380119 198
-3.58653 -2.4454899 0.380337 198
-3.5924301 -2.4412501 0.380555 198
-3.59833 -2.437 0.38077301 198
-3.6042199 -2.43273 0.38099 198
-3.61011 -2.4284501 0.381208 198
-3.6159899 -2.42416 0.38142601 197
-3.62187 -2.4198501 0.38164401 197
-3.6277399 -2.41553 0.38186201 197
-3.63569 -2.41258 0.38229799 197
-3.6415501 -2.4082301 0.382516 197
-3.6474199 -2.4038701 0.38273299 197
-3.65327 -2.3994999 0.38295099 197
-3.6591201 -2.3951199 0.383169 197
-3.6628799 -2.38937 0.383169 197
-3.66872 -2.3849599 0.383387 197
-3.6724601 -2.3792 0.383387 197
-3.6782899 -2.3747699 0.383605 196
-0.029686401 -0.0321505 0.0042599998 14
-0.0297351 -0.032105502 0.0042599998 42
-2.21348 -1.4203 0.230647 170
-2.2218499 -1.42108 0.23130099 163
-2.2240801 -1.41759 0.23130099 165
-2.2242 -1.41277 0.23108301 167
-2.2221899 -1.40663 0.230647 167
-2.21595 -1.3978601 0.229775 168
-2.2075801 -1.38779 0.228686 168
-2.2012899 -1.37907 0.227814 168
-2.1949799 -1.37037 0.226943 170
-2.1865301 -1.3603899 0.225853 170
-2.1801701 -1.35174 0.22498199 170
-2.17167 -1.34181 0.223892 170
-2.1652701 -1.33322 0.223021 169
-2.1567199 -1.32335 0.221931 169
-2.14814 -1.3135099 0.220842 169
-2.14168 -1.3049901 0.21997 170
-2.13305 -1.2952 0.218881 170
-2.1265399 -1.2867301 0.218009 170
-2.1199999 -1.27829 0.21713801 170
-2.11344 -1.26986 0.21626601 170
-2.1068699 -1.2614599 0.215395 170
-2.1024101 -1.2543499 0.21474101 172
-2.0936501 -1.24473 0.213651 172
-2.0869999 -1.2364 0.21278 171
-2.0803399 -1.2280999 0.211908 169
-2.0736599 -1.21982 0.211037 169
-2.0691099 -1.21281 0.210383 169
-2.06023 -1.20333 0.20929401 169
-2.0534899 -1.19512 0.20842201 169
-2.0488801 -1.18818 0.20776799 169
-2.0399301 -1.17878 0.206679 169
-2.0331199 -1.17064 0.205807 169
-2.0263 -1.1625299 0.204936 169
-2.02162 -1.15567 0.204282 171
-2.0169201 -1.14882 0.203629 174
-2.0165501 -1.1444401 0.203411 176
-2.0183499 -1.14127 0.203411 184
-2.02231 -1.13931 0.203629 190
-2.0241001 -1.13613 0.203629 195
-2.02806 -1.13415 0.20384599 198
-2.0276599 -1.12976 0.203629 198
-2.03161 -1.12778 0.20384599 198
-2.03338 -1.12458 0.20384599 198
-2.0373299 -1.1225801 0.204064 198
-2.04128 -1.1205699 0.204282 198
-2.0452001 -1.1186 0.2045 198
-2.04686 -1.1155601 0.2045 198
-2.05073 -1.11365 0.20471799 198
-2.05248 -1.11043 0.20471799 198
-2.0564201 -1.1083699 0.204936 198
-2.0581601 -1.10514 0.204936 198
-2.0620899 -1.10307 0.205154 198
-2.06603 -1.1009901 0.20537201 198
-2.06775 -1.0977401 0.20537201 198
-2.0716801 -1.09565 0.20558999 198
-2.0756099 -1.09354 0.205807 198
-2.0773301 -1.0902801 0.205807 198
-2.08125 -1.08816 0.206025 198
-2.08517 -1.08603 0.20624299 198
-2.0890901 -1.08389 0.206461 198
-2.09079 -1.08061 0.206461 198
-2.0947001 -1.07845 0.206679 198
-2.09639 -1.07516 0.206679 198
-2.1003001 -1.0729899 0.20689701 198
-2.10199 -1.06969 0.20689701 198
-2.10589 -1.0675 0.20711499 198
-2.1097901 -1.0653 0.207333 198
-2.1159201 -1.0642 0.20776799 198
-2.11759 -1.0608799 0.20776799 198
-2.1237299 -1.05975 0.208204 199
-2.1253901 -1.05642 0.208204 199
-2.1270399 -1.05308 0.208204 199
-2.1242199 -1.04755 0.20776799 198
-2.1191399 -1.0409499 0.20711499 196
-2.1140499 -1.0343699 0.206461 193
-2.1089399 -1.02781 0.205807 185
-2.1038101 -1.02126 0.205154 185
-2.09867 -1.01474 0.2045 187
-2.0957601 -1.0093 0.204064 187
-2.09059 -1.00281 0.203411 187
-2.0876601 -0.99739498 0.202975 187
-2.0824699 -0.99093598 0.20232099 187
-2.07951 -0.98555303 0.201885 187
-2.07428 -0.979128 0.201232 187
-2.0690401 -0.97272301 0.200578 186
-2.0637801 -0.96633601 0.19992401 184
-2.0585101 -0.95996898 0.19927099 184
-2.05323 -0.95362002 0.198617 183
-2.05019 -0.94832402 0.198181 182
-2.0448999 -0.94195402 0.197528 182
-2.03965 -0.93548101 0.19687399 181
-2.0366399 -0.930107 0.196438 181
-2.03128 -0.92384797 0.195785 179
-2.0281799 -0.91862297 0.19534899 179
-2.02279 -0.91239798 0.194695 178
-2.01739 -0.906192 0.194041 178
-2.0142601 -0.90101099 0.193606 178
-2.0088301 -0.89484102 0.19295201 178
-2.0033901 -0.88868898 0.192298 178
-2.0002201 -0.88355201 0.191863 178
-1.99475 -0.87743503 0.191209 178
-1.99155 -0.87232602 0.190773 177
-1.98834 -0.86722797 0.190337 177
-1.9851201 -0.86214298 0.18990199 177
-1.98189 -0.85707003 0.189466 176
-1.97865 -0.85201001 0.18903001 176
-1.9754 -0.84696102 0.188594 175
-1.97214 -0.84192598 0.18815801 175
-1.96886 -0.83690202 0.187723 175
-1.96328 -0.83093202 0.187069 173
-1.95768 -0.82498097 0.186415 173
-1.95207 -0.81905103 0.185762 173
-1.94875 -0.81408697 0.185326 173
-1.94311 -0.80819201 0.184672 173
-1.93977 -0.803258 0.184236 171
-1.9341 -0.79739898 0.18358301 171
-1.93074 -0.79249197 0.183147 171
-1.92505 -0.78666902 0.182493 170
-1.9216599 -0.78179199 0.18205801 170
-1.91594 -0.77600503 0.18140399 170
-1.91022 -0.77023798 0.18075 170
-1.90447 -0.76449001 0.180097 169
-1.89872 -0.75876302 0.179443 169
-1.89527 -0.75396401 0.17900699 169
-1.8918101 -0.74917698 0.178571 169
-1.89066 -0.74530399 0.178353 169
-1.88719 -0.74053901 0.177918 169
-1.8860199 -0.73667997 0.1777 169
-1.88253 -0.73193699 0.177264 169
-1.88135 -0.72809303 0.177046 169
-1.87783 -0.72337198 0.17660999 169
-1.8766299 -0.71954298 0.176392 169
-1.8731 -0.71484399 0.17595699 169
-1.86947 -0.710361 0.175521 169
-1.86334 -0.70547098 0.174867 169
-1.8549401 -0.69952703 0.173996 169
-1.85136 -0.69488901 0.17355999 169
-1.84543 -0.68940401 0.172906 169
-1.84184 -0.68479502 0.17247 169
-1.83823 -0.68019903 0.17203499 169
-1.83461 -0.67561603 0.171599 169
-1.82864 -0.67020202 0.170945 169
-1.82031 -0.66396898 0.170074 169
-1.81197 -0.657763 0.169202 167
-1.79892 -0.64991999 0.167895 167
-1.7835 -0.64129102 0.16637 165
-1.76805 -0.63271201 0.16484401 162
-1.75494 -0.62500399 0.163537 160
-1.7441601 -0.61815798 0.162448 160
-1.73806 -0.612975 0.16179401 160
-1.73667 -0.609433 0.161576 162
-1.73527 -0.60589701 0.161358 164
-1.73858 -0.60397398 0.161576 167
-1.73952 -0.60124302 0.161576 169
-1.74283 -0.59930497 0.16179401 172
-1.74376 -0.59656698 0.16179401 181
-1.7447 -0.59382701 0.16179401 182
-1.74563 -0.59108597 0.16179401 189
-1.74419 -0.58756202 0.161576 191
-1.74275 -0.58404499 0.161358 194
-1.74366 -0.58130598 0.161358 191
-1.7422 -0.577797 0.16113999 184
-1.7407399 -0.57429397 0.16092201 178
-1.73927 -0.57079601 0.160704 176
-1.73779 -0.56730503 0.160487 172
-1.73631 -0.56382 0.16026901 169
-1.73482 -0.560341 0.160051 168
-1.73332 -0.55686802 0.159833 166
-1.73181 -0.55339998 0.159615 166
-1.7302999 -0.54993999 0.15939701 166
-1.72879 -0.54648501 0.159179 168
-1.72726 -0.543037 0.158961 171
-1.72335 -0.53886497 0.158526 172
-1.72181 -0.53543299 0.158308 172
-1.71788 -0.53128499 0.15787201 172
-1.7163301 -0.52786899 0.157654 172
-1.71477 -0.52445799 0.157436 172
-1.7132 -0.52105403 0.15721799 172
-1.70924 -0.51695001 0.156782 172
-1.7076499 -0.51360899 0.156565 172
-1.70363 -0.50967699 0.156129 172
-1.70201 -0.50640702 0.155911 172
-1.69802 -0.50234997 0.15547501 172
-1.69402 -0.49830601 0.155039 172
-1.69001 -0.494277 0.154604 172
-1.68839 -0.49094099 0.154386 172
-1.68436 -0.48693499 0.15395001 172
-1.68273 -0.48361599 0.153732 172
-1.6786799 -0.479635 0.15329599 172
-1.67704 -0.47633201 0.153078 172
-1.67298 -0.47237399 0.152643 172
-1.66892 -0.46843001 0.152207 172
-1.66725 -0.46515399 0.151989 172
-1.66557 -0.46188501 0.15177099 172
-1.66389 -0.458621 0.151553 172
-1.6598001 -0.45472199 0.151117 172
-1.6581 -0.45147601 0.15089899 172
-1.6564 -0.44823599 0.150682 171
-1.65469 -0.44500199 0.150464 171
-1.65298 -0.44177401 0.15024599 171
-1.65367 -0.43917799 0.15024599 171
-1.65195 -0.43595999 0.15002801 171
-1.65022 -0.43274799 0.14981 171
-1.64607 -0.428931 0.14937399 171
-1.64432 -0.42573601 0.149156 171
-1.64016 -0.42194301 0.14872099 171
-1.6384 -0.41876501 0.14850301 171
-1.63664 -0.41559401 0.148285 171
-1.6348701 -0.41242999 0.148067 170
-1.6331 -0.40927199 0.14784899 170
-1.6289001 -0.405534 0.147413 170
-1.62711 -0.40239301 0.147195 169
-1.6229 -0.39868101 0.14676 169
-1.61867 -0.39498299 0.14632399 169
-1.61444 -0.391298 0.145888 169
-1.61506 -0.388762 0.145888 169
-1.61081 -0.38509899 0.14545199 169
-1.60899 -0.382009 0.145234 169
-1.60716 -0.37892601 0.145016 169
-1.60532 -0.37584999 0.14479899 169
-1.60348 -0.37278 0.144581 169
-1.60164 -0.369717 0.144363 169
-1.59978 -0.36666101 0.144145 169
-1.59791 -0.363655 0.14392699 168
-1.59602 -0.360751 0.143709 168
-1.59413 -0.35780999 0.143491 168
-1.59225 -0.354781 0.143273 167
-1.5903701 -0.351758 0.14305501 164
-1.58849 -0.34874201 0.142838 164
-1.5865999 -0.34573299 0.14262 164
-1.5847 -0.34272999 0.14240199 164
-1.5803601 -0.33922899 0.141966 164
-1.57845 -0.33624399 0.141748 164
-1.57654 -0.33326599 0.14153001 164
-1.57462 -0.33029401 0.141312 164
-1.57025 -0.326839 0.14087699 164
-1.56832 -0.32388601 0.140659 167
-1.56394 -0.320456 0.140223 168
-1.562 -0.31751901 0.14000501 168
-1.55515 -0.31368199 0.139351 168
-1.55317 -0.31090301 0.13913301 168
-1.54875 -0.30761999 0.138698 168
-1.54678 -0.30472201 0.13847999 168
-1.5448101 -0.30183199 0.138262 166
-1.54528 -0.29940501 0.138262 164
-1.54575 -0.29697701 0.138262 164
-1.5462199 -0.29454899 0.138262 161
-1.54423 -0.291675 0.138044 161
-1.54223 -0.28880799 0.137826 160
-1.54023 -0.28594801 0.13760801 157
-1.5382299 -0.283095 0.13739 155
-1.5386699 -0.280678 0.13739 154
-1.5366499 -0.27783501 0.137172 153
-1.5346299 -0.27499899 0.13695499 152
-1.53506 -0.27258801 0.13695499 152
-1.53304 -0.26976201 0.136737 150
-1.531 -0.26694301 0.136519 147
-1.53142 -0.26453799 0.136519 146
-1.52692 -0.261327 0.13608301 146
-1.52487 -0.25852999 0.135865 146
-1.52281 -0.255739 0.135647 146
-1.51829 -0.252565 0.13521101 146
-1.51377 -0.249406 0.134776 146
-1.51416 -0.24702799 0.134776 144
-1.50962 -0.24389 0.13434 144
-1.50508 -0.240767 0.133904 143
-1.50053 -0.23766001 0.133468 141
-1.49597 -0.234567 0.13303301 141
-1.49388 -0.23185299 0.132815 140
-1.49177 -0.229146 0.132597 139
-1.48967 -0.226446 0.132379 138
-1.48756 -0.223754 0.13216101 138
-1.48791 -0.22141699 0.13216101 138
-1.48332 -0.21839 0.131725 138
-1.48119 -0.215719 0.13150699 138
-1.4790601 -0.213056 0.13128901 138
-1.47939 -0.210732 0.13128901 137
-1.47725 -0.208119 0.131071 137
-1.47756 -0.205927 0.131071 135
-1.47787 -0.203695 0.131071 134
-1.4781801 -0.201373 0.131071 131
-1.47603 -0.198737 0.130854 129
-1.4763401 -0.196418 0.130854 127
-1.47665 -0.19409899 0.130854 124
-1.47695 -0.191779 0.130854 119
-1.47725 -0.189459 0.130854 100
-1.47507 -0.18684401 0.13063601 94
-1.47536 -0.18452699 0.13063601 93
-1.4707 -0.18163501 0.1302 87
-1.46604 -0.17875899 0.12976401 86
-1.46384 -0.176177 0.129546 83
-1.46412 -0.173877 0.129546 84
-1.4668601 -0.171849 0.12976401 80
-1.47208 -0.17007899 0.1302 80
-1.47483 -0.16802999 0.130418 78
-1.48004 -0.166232 0.130854 80
-1.48526 -0.164418 0.13128901 81
-1.48799 -0.16233701 0.13150699 77
-1.48824 -0.159999 0.13150699 79
-1.49097 -0.157905 0.131725 80
-1.4937 -0.15580299 0.131943 79
-1.49642 -0.15369301 0.13216101 77
-1.49914 -0.151574 0.132379 78
-1.50185 -0.14944801 0.132597 78
-1.50457 -0.147313 0.132815 77
-1.50728 -0.14517 0.13303301 76
-1.50998 -0.14301901 0.13325 77
-1.5126899 -0.14086001 0.133468 75
-1.51291 -0.138484 0.133468 75
-1.51561 -0.13631199 0.13368601 77
-1.51582 -0.133931 0.13368601 76
-1.51851 -0.13174701 0.133904 76
-1.5211999 -0.129555 0.134122 76
-1.52637 -0.127544 0.13455801 74
-1.5265599 -0.125147 0.13455801 75
-1.5317301 -0.123112 0.134994 74
-1.53689 -0.121061 0.13542899 73
-1.5470099 -0.119342 0.136301 70
-1.5546499 -0.117422 0.13695499 70
-0.041500598 -0.0138795 0.0042599998 69
-0.041522302 -0.0138143 0.0042599998 68
-0.041544002 -0.013749 0.0042599998 66
-0.0415655 -0.0136837 0.0042599998 65
-5.31427 -0.33260301 0.46640301 123
-5.3297 -0.32513201 0.46770999 163
-5.3351798 -0.31704599 0.468146 186
-5.3505902 -0.309497 0.46945301 192
-5.3709602 -0.30217099 0.47119701 196
-5.3962998 -0.29504099 0.47337499 196
-5.42909 -0.28821501 0.476208 196
-5.4593902 -0.28116399 0.47882301 196
-5.4847002 -0.27377999 0.48100099 196
-5.5025401 -0.26596901 0.48252699 196
-5.5128999 -0.25777099 0.48339799 199
-5.51579 -0.249219 0.48361599 199
-5.5186601 -0.240659 0.483834 199
-5.5240102 -0.232188 0.48427001 199
-5.5293398 -0.223702 0.48470601 204
-5.5346699 -0.21520001 0.48514101 204
-5.5399799 -0.206682 0.48557699 204
-5.5427799 -0.198063 0.48579499 204
-5.5455799 -0.189436 0.486013 208
-5.5458698 -0.18072499 0.486013 208
-5.5436502 -0.171942 0.48579499 208
-5.54143 -0.163164 0.48557699 208
-5.5366998 -0.154331 0.48514101 208
-5.53195 -0.145513 0.48470601 200
-5.5247002 -0.136804 0.484052 200
-5.5149398 -0.128397 0.48317999 200
-5.5076599 -0.119917 0.48252699 200
-5.50037 -0.111129 0.48187301 199
-5.4930701 -0.102365 0.48121899 199
-5.4857502 -0.093624197 0.48056599 199
-5.4809098 -0.084940299 0.48012999 199
-5.4735699 -0.0762408 0.479476 199
-5.4686999 -0.067591697 0.47904101 199
-5.4613299 -0.058936302 0.478387 199
-5.45643 -0.050322201 0.47795099 199
-5.4490299 -0.041708101 0.47729701 199
-5.4416199 -0.033118799 0.47664401 199
-5.4366798 -0.024559099 0.476208 199
-5.4292402 -0.0160127 0.47555399 199
-5.4242802 -0.0074866801 0.47511899 199
-5.4193101 0.00102228 0.47468299 199
-5.41432 0.0095156003 0.47424701 199
-5.4068198 0.017979899 0.473593 199
-5.3993201 0.026422 0.47294 199
-5.3917999 0.034839299 0.47228599 199
-5.3817701 0.043207798 0.471414 199
-5.3717399 0.051544901 0.470543 199
-5.3641801 0.059884999 0.46988899 199
-5.3566098 0.0682 0.46923599 199
-5.34654 0.076450698 0.468364 199
-5.3414302 0.084759198 0.46792799 199
-5.3338199 0.093003199 0.46727401 199
-5.3262 0.101224 0.46662101 199
-5.3210502 0.109478 0.466185 199
-5.3158898 0.117715 0.465749 199
-5.3082299 0.125872 0.465096 199
-5.30305 0.134074 0.46465999 199
-5.2978501 0.14226 0.46422401 199
-5.2926402 0.15042999 0.463788 199
-5.2874198 0.158583 0.46335301 204
-5.2821898 0.16672 0.462917 199
-5.2769399 0.174843 0.46248099 199
-5.2716799 0.18294799 0.46204501 200
-5.2664099 0.191038 0.46160901 200
-5.2586398 0.199011 0.46095601 198
-5.2558298 0.207169 0.460738 197
-5.2505298 0.21521001 0.460302 195
-0.042785902 -0.0091818897 0.0042599998 9
-0.042800002 -0.0091158301 0.0042599998 37
-1.78417 0.074024498 0.156782 145
-1.7965 0.077332199 0.15787201 127
-1.80632 0.080659799 0.15874299 111
-1.81863 0.084148198 0.159833 123
-1.82347 0.087273002 0.16026901 118
-1.82582 0.090275101 0.160487 118
-1.82567 0.093143404 0.160487 118
-1.82801 0.096156798 0.160704 98
-1.83034 0.099177703 0.16092201 93
-1.83267 0.102257 0.16113999 85
-1.82752 0.104979 0.160704 80
-1.82735 0.107959 0.160704 68
-1.81724 0.110167 0.159833 13
-1.81209 0.112681 0.15939701 163
-5.1137199 0.34629399 0.44897199 186
-5.1156502 0.35450399 0.44918999 198
-5.1150899 0.36254001 0.44918999 199
-5.1145101 0.370574 0.44918999 199
-5.1114402 0.378418 0.44897199 199
-5.1083598 0.386253 0.44875401 199
-5.1027799 0.39388299 0.448318 199
-5.0996699 0.40169701 0.4481 199
-5.09407 0.40929699 0.44766399 199
-5.0859799 0.41667199 0.44701099 199
-5.0803499 0.424236 0.44657499 199
-5.0722399 0.431566 0.445921 199
-5.0665898 0.43909201 0.44548601 199
-5.0609298 0.446601 0.44505 200
-5.0527902 0.453866 0.44439599 200
-5.0471101 0.46133801 0.44396001 200
-5.04142 0.468793 0.44352499 200
-5.0332398 0.47599101 0.442871 200
-5.0275302 0.48340899 0.442435 200
-5.0218101 0.49081001 0.44199899 200
-5.0160699 0.49819499 0.44156399 200
-5.0103302 0.50556302 0.44112799 204
-5.00458 0.51291299 0.44069201 204
-4.9988098 0.52024698 0.440256 204
-4.9930301 0.527565 0.43981999 204
-4.9872599 0.534729 0.439385 204
-4.9815102 0.54157799 0.43894899 204
-4.97574 0.54854602 0.43851301 204
-4.9699202 0.55579799 0.438077 204
-4.9665699 0.563317 0.437859 204
-4.9607301 0.57053798 0.437424 204
-4.9573598 0.578035 0.437206 204
-4.9514999 0.58522499 0.43676999 204
-4.9481001 0.5927 0.43655199 204
-4.9422202 0.59986198 0.43611601 204
-4.9387999 0.607315 0.43589801 204
-4.9329 0.61444497 0.43546301 198
-0.043400198 -0.00559976 0.0042599998 195
-0.043409001 -0.0055315699 0.0042599998 8
-2.0335901 0.256475 0.17987899 164
-2.0455201 0.261314 0.180968 143
-2.0574501 0.26618999 0.18205801 127
-2.0669 0.27076799 0.18292899 120
-2.07388 0.27503601 0.18358301 142
-2.0759101 0.27863801 0.183801 145
-2.073 0.28154999 0.18358301 145
-2.0700901 0.28445399 0.183365 141
-2.0671799 0.28734899 0.183147 131
-2.06179 0.28987601 0.18271101 122
-2.0613401 0.29311401 0.18271101 22
-2.0608699 0.296352 0.18271101 123
-4.8259401 0.716748 0.42740101 163
-4.8248 0.72432798 0.42740101 186
-4.8236399 0.73203802 0.42740101 198
-4.8199601 0.73965102 0.427183 208
-4.8187499 0.74751002 0.427183 208
-4.8126502 0.75429702 0.42674699 208
-4.809 0.76146001 0.42652899 200
-4.8053398 0.76861399 0.42631099 200
-4.7992101 0.77535498 0.42587599 208
-4.7955298 0.78248698 0.42565799 208
-4.7893801 0.78919798 0.42522201 200
-4.7856798 0.796305 0.42500401 200
-4.77951 0.802984 0.424568 200
-4.7757902 0.81006998 0.42434999 200
-4.7695999 0.816719 0.423915 204
-4.7634101 0.82335001 0.42347899 204
-4.7522998 0.82909602 0.422607 208
-4.73383 0.83349699 0.42108199 208
-4.7104502 0.836959 0.419121 208
-4.6821799 0.83946103 0.416724 198
-4.6539102 0.84187502 0.414327 199
-4.6329899 0.84556001 0.41258401 204
-4.6169701 0.85009599 0.411277 204
-4.6107302 0.85642701 0.41084099 204
-4.6093798 0.86366802 0.41084099 204
-4.6104598 0.87137502 0.41105899 198
-4.6139798 0.87955999 0.411495 198
-4.6174798 0.88775998 0.41193101 198
-4.6234102 0.896451 0.41258401 198
-4.6268802 0.904679 0.41302001 198
-4.6303401 0.91292101 0.41345599 198
-4.63379 0.92117602 0.413892 198
-4.63727 0.92919099 0.414327 199
-4.6408401 0.93666202 0.414763 200
-4.6419201 0.943896 0.41498101 208
-0.043701898 -0.00225363 0.0042599998 208
-0.0437054 -0.0021849801 0.0042599998 13
-0.043708801 -0.00211632 0.0042599998 43
-2.24845 0.46610001 0.20145001 170
-2.2550199 0.471194 0.202103 170
-2.25915 0.47578499 0.202539 180
-2.2608299 0.47986299 0.202757 187
-2.2625101 0.483946 0.202975 187
-2.25931 0.48696199 0.202757 187
-2.25611 0.48997 0.202539 184
-2.2577701 0.49405801 0.202757 180
-2.25699 0.497603 0.202757 170
-2.2562101 0.50114799 0.202757 36
-2.2578399 0.505247 0.202975 129
-4.5625701 1.04013 0.40996999 169
-4.5633602 1.04786 0.41018799 190
-4.5617099 1.05503 0.41018799 195
-4.56247 1.06276 0.41040501 198
-4.5608001 1.06993 0.41040501 199
-4.5591102 1.07709 0.41040501 200
-4.5525699 1.0830899 0.40996999 200
-4.54844 1.08965 0.40975201 200
-4.5418901 1.09561 0.409316 200
-4.5377402 1.10215 0.409098 200
-4.5335898 1.10868 0.40888 200
-4.5294199 1.1152 0.40866199 200
-4.52283 1.1210999 0.408227 200
-4.5186501 1.1276 0.40800899 200
-4.5144601 1.1340801 0.40779099 200
-4.5078802 1.13982 0.40735501 200
-4.5037699 1.14588 0.40713701 200
-4.49721 1.15144 0.406701 200
-4.49299 1.1578799 0.40648299 200
-4.48875 1.1643 0.406266 200
-4.4845099 1.17072 0.406048 200
-4.47785 1.1764801 0.40561199 204
-4.4735899 1.18287 0.40539399 204
-4.4669199 1.1885999 0.40495801 204
-4.4602399 1.19432 0.404522 204
-4.4535499 1.20002 0.40408701 204
-4.4468498 1.2057 0.403651 204
-4.4425502 1.21202 0.403433 204
-4.4358401 1.21767 0.40299699 204
-4.4314899 1.22408 0.40277901 204
-4.4270601 1.23076 0.40256101 204
-4.4226499 1.2373 0.40234399 204
-4.4159098 1.24288 0.40190801 204
-4.4115601 1.24913 0.40169001 204
-4.4071999 1.25537 0.401472 204
-4.4028301 1.2616 0.401254 204
-4.3984499 1.26782 0.40103599 204
-4.3916702 1.27333 0.40059999 204
-4.38728 1.27952 0.400383 204
-4.3828702 1.28571 0.40016499 204
-4.3784599 1.29188 0.39994699 204
-4.3740401 1.29804 0.39972901 204
-4.3696098 1.30419 0.39951101 204
-4.36517 1.31033 0.39929301 204
-4.3607302 1.31646 0.399075 204
-4.3562698 1.32258 0.398857 204
-4.35181 1.3286901 0.39863899 204
-4.3473401 1.33479 0.398422 204
-4.3428602 1.34087 0.398204 204
-4.33599 1.3462 0.39776799 204
-4.3338699 1.3530101 0.39776799 204
-4.3269901 1.35832 0.39733201 204
-4.3248601 1.36511 0.39733201 199
-4.3203301 1.37114 0.39711401 199
-4.3158002 1.37717 0.396896 199
-4.3112702 1.38318 0.396678 199
-4.3067198 1.3891799 0.39646101 200
-4.3021698 1.39517 0.39624301 200
-4.2975998 1.40114 0.396025 200
-4.2930298 1.40711 0.395807 200
-4.2884498 1.41307 0.39558899 200
-4.2838602 1.41901 0.39537099 200
-4.2792702 1.42495 0.39515299 200
-4.2746701 1.4308701 0.39493501 200
-4.2677002 1.43599 0.39449999 200
-4.2630801 1.44188 0.39428201 200
-4.2561002 1.44696 0.39384601 200
-4.2514601 1.45283 0.393628 200
-4.24682 1.4586999 0.39341 200
-4.2421699 1.46455 0.39319199 200
-4.2375202 1.47039 0.39297399 200
-4.2328501 1.47622 0.39275599 200
-4.2281799 1.48203 0.39253899 200
-4.2235799 1.48761 0.39232099 200
-4.2191501 1.4926701 0.39210299 204
-4.2146401 1.49795 0.39188501 204
-4.20994 1.50372 0.39166701 204
-4.2028899 1.5086401 0.391231 204
-4.1981702 1.51439 0.391013 204
-4.19345 1.52013 0.39079499 204
-4.1863799 1.525 0.39036 199
-4.1816401 1.53071 0.39014199 200
-4.1768999 1.53641 0.38992399 200
-4.1721501 1.5421 0.38970599 200
-4.1697202 1.54865 0.38970599 200
-4.1649499 1.55432 0.38948801 200
-4.1601701 1.55998 0.38927001 199
-4.1553898 1.56563 0.389052 199
-4.1506 1.57127 0.388834 199
-4.1457601 1.57701 0.38861701 199
-4.14081 1.5829901 0.388399 199
-4.1359 1.58884 0.388181 199
-4.1334 1.59533 0.388181 199
-4.1285701 1.60092 0.387963 199
-4.1237302 1.60649 0.38774499 199
-4.1212001 1.61296 0.38774499 199
-4.1163502 1.61852 0.38752699 199
-4.1114898 1.62406 0.38730901 199
-4.1066198 1.62959 0.38709101 199
-4.1017399 1.63511 0.38687301 199
-4.0991702 1.64156 0.38687301 199
-4.0942798 1.64706 0.38665599 199
-4.0893798 1.65255 0.38643801 199
-4.0844698 1.65803 0.38622001 199
-4.0795598 1.6634901 0.386002 199
-4.0769401 1.6698999 0.386002 199
-4.07201 1.67535 0.385784 199
-4.06708 1.6807899 0.385566 199
-4.06213 1.68621 0.38534799 199
-4.0571799 1.69163 0.38512999 199
